11.90	17.35	0.68
12.08	17.35	0.67
12.22	17.34	0.65
12.38	17.34	0.64
11.09	17.33	0.61
12.30	17.33	0.63
10.94	17.32	0.59
11.42	17.32	0.65
12.28	17.01	0.63
11.33	17.00	0.65
12.17	17.00	0.66
11.02	16.99	0.59
11.06	16.99	0.61
11.96	16.96	0.69
12.23	16.96	0.65
12.31	16.96	0.64
12.09	16.95	0.67
11.96	16.95	0.68
12.38	16.95	0.64
11.44	16.95	0.66
11.08	16.94	0.61
10.92	16.94	0.59
11.68	16.94	0.68
12.28	16.34	0.63
12.16	16.27	0.66
11.06	16.22	0.61
11.03	16.21	0.59
11.40	16.20	0.64
12.38	15.80	0.63
12.11	15.80	0.66
12.24	15.80	0.64
12.29	15.80	0.63
11.94	15.79	0.68
11.55	15.79	0.66
10.94	15.79	0.59
11.08	15.78	0.61
12.28	15.62	0.63
12.14	15.56	0.65
11.08	15.45	0.59
11.03	15.45	0.59
11.39	15.43	0.63
12.30	14.72	0.63
12.12	14.72	0.66
11.92	14.72	0.68
12.24	14.72	0.64
12.38	14.71	0.63
11.09	14.69	0.61
10.93	14.69	0.58
11.51	14.68	0.65
11.08	14.55	0.61
12.11	14.55	0.66
11.38	14.55	0.64
11.92	14.55	0.68
12.24	14.55	0.64
12.38	14.54	0.63
11.51	14.54	0.65
11.86	14.54	0.68
10.94	14.54	0.58
12.31	14.54	0.63
12.15	14.53	0.66
12.27	14.53	0.62
11.04	14.52	0.59
11.38	14.51	0.60
12.15	14.51	0.62
11.88	14.51	0.61
11.20	14.50	0.61
11.40	14.49	0.63
12.39	14.49	0.63
11.66	14.49	0.64
12.31	14.49	0.63
11.09	14.49	0.59
11.92	14.48	0.64
12.07	14.47	0.63
10.95	14.47	0.58
12.23	14.47	0.62
11.39	14.41	0.60
11.10	14.41	0.59
11.65	14.39	0.61
12.16	14.39	0.62
12.23	14.39	0.62
11.95	14.38	0.62
12.41	14.38	0.63
12.40	14.23	0.63
11.57	14.23	0.60
11.21	14.22	0.59
12.25	14.22	0.62
10.94	14.22	0.58
11.95	14.22	0.61
12.09	14.22	0.62
10.94	13.06	0.58
11.94	13.05	0.61
11.57	13.05	0.60
12.39	13.05	0.63
11.26	13.05	0.59
11.09	13.05	0.59
12.21	13.04	0.62
11.08	12.90	0.59
10.93	12.90	0.58
11.36	12.89	0.60
11.66	12.89	0.60
11.93	12.89	0.61
12.39	12.88	0.63
12.10	12.88	0.62
12.32	12.88	0.63
12.24	12.88	0.62
10.94	12.84	0.58
11.06	12.83	0.59
12.38	12.83	0.63
12.29	12.83	0.63
11.24	12.83	0.59
11.66	12.82	0.63
11.46	12.82	0.61
12.12	12.81	0.63
11.93	12.81	0.65
11.39	12.78	0.59
11.88	12.78	0.61
12.11	12.78	0.62
12.27	12.76	0.62
11.43	12.75	0.64
11.60	12.75	0.66
11.09	12.75	0.60
11.39	12.75	0.64
11.82	12.75	0.67
12.12	12.75	0.65
11.86	12.75	0.67
12.02	12.75	0.67
10.95	12.74	0.58
12.13	12.74	0.66
12.24	12.74	0.64
12.30	12.74	0.63
12.40	12.74	0.63
11.47	12.60	0.65
10.94	12.59	0.58
11.95	12.59	0.67
11.07	12.59	0.60
12.13	12.58	0.66
12.30	12.58	0.62
12.40	12.58	0.63
12.25	12.58	0.64
10.90	12.52	0.60
11.36	11.78	0.63
12.29	11.73	0.62
11.03	11.73	0.58
12.16	11.72	0.65
11.92	11.71	0.67
10.93	11.52	0.58
11.07	11.52	0.60
12.38	11.52	0.63
11.50	11.52	0.65
11.92	11.51	0.68
12.11	11.51	0.66
12.24	11.51	0.64
12.30	11.51	0.63
11.36	11.22	0.63
12.27	10.88	0.62
12.13	10.88	0.65
11.91	10.66	0.67
12.14	10.30	0.65
12.27	10.30	0.62
11.38	10.29	0.64
11.04	10.27	0.60
12.23	10.24	0.64
12.29	10.24	0.63
12.37	10.23	0.63
12.11	10.23	0.66
11.92	10.22	0.67
10.93	10.22	0.58
11.49	10.22	0.65
11.06	10.22	0.60
11.37	10.02	0.65
11.03	9.97	0.59
12.14	9.69	0.65
12.26	9.68	0.62
11.91	9.67	0.67
11.03	9.47	0.59
11.36	9.45	0.62
11.46	9.24	0.65
12.09	9.23	0.66
11.93	9.23	0.68
12.29	9.23	0.63
12.37	9.23	0.63
10.92	9.23	0.58
11.07	9.23	0.60
12.23	9.23	0.64
11.02	9.16	0.59
11.35	9.11	0.64
12.25	9.08	0.63
12.13	9.07	0.65
10.92	8.87	0.58
11.06	8.87	0.60
11.39	8.85	0.65
11.87	8.85	0.67
11.61	8.84	0.67
11.90	8.83	0.66
12.09	8.82	0.65
12.23	8.82	0.64
12.33	8.82	0.63
12.36	8.81	0.63
11.86	8.49	0.67
12.23	8.49	0.64
10.89	8.48	0.58
11.48	8.48	0.65
12.09	8.48	0.66
11.05	8.48	0.59
11.91	8.48	0.68
12.28	8.47	0.63
12.37	8.46	0.63
11.01	8.23	0.59
11.34	8.21	0.62
12.11	8.18	0.66
12.24	8.15	0.63
10.97	7.84	0.58
11.02	7.84	0.60
11.32	7.83	0.64
11.01	7.48	0.59
11.36	7.37	0.63
10.90	7.25	0.58
11.04	7.25	0.60
11.89	7.24	0.68
11.49	7.24	0.65
12.21	7.23	0.64
12.08	7.23	0.67
12.35	7.23	0.63
12.26	7.22	0.63
12.24	7.21	0.63
12.11	7.19	0.66
10.99	6.93	0.59
10.98	6.93	0.59
11.34	6.90	0.64
10.87	6.58	0.60
11.66	6.58	0.65
12.24	6.58	0.63
11.32	6.25	0.63
12.24	6.24	0.63
11.00	6.22	0.60
12.08	6.22	0.66
10.87	5.91	0.60
11.66	5.91	0.65
12.24	5.91	0.63
11.47	5.59	0.65
10.88	5.56	0.58
11.87	5.56	0.68
11.02	5.55	0.60
12.24	5.55	0.63
12.19	5.55	0.65
12.33	5.55	0.63
12.06	5.55	0.67
11.32	5.42	0.64
10.87	5.42	0.58
11.34	5.41	0.64
10.96	5.41	0.59
11.63	5.40	0.67
11.88	5.40	0.68
11.01	5.40	0.60
11.87	5.40	0.68
12.10	5.40	0.66
12.07	5.40	0.67
12.20	5.39	0.65
12.34	5.39	0.63
12.24	5.39	0.63
12.21	5.39	0.63
11.33	5.38	0.60
12.10	5.38	0.63
11.89	5.37	0.62
12.03	5.33	0.64
11.87	5.33	0.65
11.02	5.33	0.59
11.63	5.33	0.64
10.87	5.33	0.58
12.32	5.33	0.63
12.25	5.33	0.63
11.34	5.32	0.60
12.18	5.32	0.63
11.87	5.28	0.62
12.33	5.28	0.63
11.02	5.28	0.59
11.62	5.28	0.61
12.18	5.27	0.63
10.88	5.27	0.58
11.34	5.27	0.60
12.04	5.27	0.63
12.33	5.12	0.63
10.87	5.12	0.58
12.03	5.12	0.63
11.62	5.12	0.61
11.19	5.11	0.59
11.01	3.98	0.59
12.33	3.98	0.64
11.31	3.97	0.60
10.84	3.97	0.59
12.00	3.97	0.63
11.85	3.97	0.62
11.59	3.97	0.61
12.17	3.97	0.63
10.88	3.76	0.59
12.31	3.76	0.64
11.33	3.76	0.60
11.60	3.76	0.61
12.24	3.76	0.63
12.03	3.75	0.63
11.01	3.75	0.59
12.18	3.75	0.63
11.86	3.75	0.62
12.23	3.73	0.63
12.31	3.70	0.64
11.20	3.70	0.59
10.87	3.70	0.59
11.62	3.70	0.64
11.01	3.70	0.59
11.34	3.69	0.61
12.18	3.69	0.63
11.88	3.69	0.65
12.04	3.68	0.64
11.31	3.64	0.60
12.09	3.64	0.63
11.91	3.63	0.62
12.21	3.63	0.63
10.97	3.63	0.59
12.18	3.63	0.65
12.06	3.63	0.67
11.66	3.62	0.67
11.01	3.62	0.60
11.21	3.62	0.63
11.88	3.62	0.68
12.23	3.62	0.63
11.33	3.61	0.64
12.31	3.61	0.63
11.43	3.61	0.65
12.08	3.61	0.67
10.86	3.61	0.59
11.91	3.61	0.68
11.01	3.46	0.60
10.85	3.46	0.59
11.45	3.46	0.65
12.31	3.46	0.63
12.18	3.46	0.65
12.04	3.45	0.67
12.23	3.45	0.63
11.87	3.45	0.68
10.99	3.23	0.60
12.11	3.22	0.66
10.97	3.22	0.59
12.24	3.21	0.63
11.33	3.20	0.60
10.87	2.81	0.60
11.66	2.81	0.65
12.24	2.81	0.63
10.86	2.41	0.59
11.86	2.41	0.68
11.46	2.41	0.65
12.17	2.41	0.65
12.24	2.41	0.63
12.33	2.40	0.64
12.04	2.40	0.67
11.01	2.40	0.60
12.24	2.23	0.63
11.00	2.22	0.60
11.32	2.19	0.63
12.09	2.19	0.66
10.87	1.69	0.60
11.66	1.69	0.63
12.24	1.69	0.63
11.00	1.19	0.60
12.23	1.18	0.63
10.97	1.17	0.59
12.10	1.17	0.66
11.31	1.16	0.63
10.87	1.03	0.59
11.01	1.03	0.60
11.84	1.02	0.68
11.39	1.02	0.65
11.41	1.02	0.65
12.18	1.01	0.65
12.33	1.01	0.64
12.04	1.01	0.67
12.24	1.00	0.63
11.31	0.57	0.64
12.09	0.25	0.66
12.24	0.25	0.63
10.96	0.04	0.59
11.00	0.04	0.61
11.30	0.03	0.64
10.85	-0.01	0.59
12.32	-0.02	0.64
11.46	-0.02	0.66
12.24	-0.03	0.64
11.02	-0.03	0.61
12.05	-0.03	0.68
12.17	-0.03	0.66
11.84	-0.03	0.68
