15.93970200	17.21803000	0.76341210
15.95744800	16.19600800	0.76408398
15.95051000	15.22400900	0.75731850
15.94865800	14.19801000	0.76184597
15.94097100	13.21901800	0.76401800
15.94159900	12.19901600	0.76234936
15.94987700	11.22300900	0.76237352
15.94244100	10.20501400	0.76426381
15.94001800	9.22601610	0.76671284
15.93280000	8.20402500	0.76258199
15.93611400	7.22701940	0.76073002
15.94402000	6.20901130	0.76373311
15.92325000	5.21003700	0.76725434
15.92206600	4.21903750	0.76753962
15.91347600	3.21805250	0.75916618
15.91058800	2.21005640	0.75971125
15.91066900	1.22405400	0.76052436
15.91090600	0.21205143	0.76265960
14.98618400	17.21283700	0.72604474
14.92789600	16.20246400	0.72748129
14.92868200	15.22169900	0.72430109
14.91947700	14.20234400	0.72265451
14.91702800	13.21200200	0.72641217
14.91959200	12.19020600	0.72412176
14.91537700	11.22226600	0.72427768
14.91662500	10.20832200	0.72510523
14.92298700	9.22366420	0.72759296
14.91702400	8.21131630	0.72382587
14.91621800	7.22298460	0.72275644
14.92405700	6.22036030	0.72709669
14.91112400	5.21727010	0.72779875
14.91341800	4.23347230	0.72807322
14.90400500	3.22645300	0.72443503
14.90903100	2.22380020	0.72508146
14.90579900	1.22470990	0.72449502
14.91416100	0.22717773	0.72370378
13.96205400	17.21659900	0.69263208
13.94288700	16.23253000	0.69101929
13.94672200	15.22519200	0.68700029
13.94990800	14.21844700	0.68641210
13.94162800	13.22593300	0.69035681
13.93746200	12.21955700	0.68757741
13.94218100	11.22413200	0.68807783
13.93745000	10.22085500	0.68705705
13.94826800	9.22429530	0.69025231
13.94485200	8.21139120	0.68790556
13.95012900	7.22688490	0.68735502
13.93593200	6.21769180	0.69029830
13.93813700	5.22241970	0.69107664
13.94475000	4.22845520	0.69822296
13.93274700	3.21401080	0.69347160
13.92886200	2.22935440	0.69463579
13.92424700	1.22510580	0.69319585
13.92117500	0.23615946	0.69604795
12.93395900	17.23262300	0.65733393
12.93172200	16.22908300	0.65612562
12.94862400	15.22746600	0.65277145
12.94186000	14.23371800	0.65125427
12.94153200	13.22765900	0.65191341
12.94719900	12.23192800	0.64872623
12.94651800	11.23103200	0.65043659
12.94664400	10.22019300	0.65024201
12.94913300	9.22979220	0.65220777
12.94948200	8.21788360	0.65083473
12.94230400	7.22671520	0.65253034
12.94181200	6.23141190	0.65659419
12.91584000	5.23592670	0.65788258
12.93934000	4.23141670	0.66150597
12.93443000	3.22561300	0.65602472
12.92812500	2.22926060	0.65661106
12.92493400	1.23544750	0.65872638
12.90990000	0.22796124	0.66090244
11.90347200	17.18603200	0.68139324
11.92062900	16.21620100	0.67863581
11.88586900	15.23763800	0.67572433
11.93870800	14.22753600	0.61300376
11.93725400	13.22328800	0.61389434
11.93795500	12.21197200	0.67349133
11.87237600	11.22833200	0.67539542
11.87524000	10.24940200	0.67406821
11.87074000	9.24798850	0.67811130
11.89434400	8.19596860	0.67202402
11.85716500	7.25233150	0.67741541
11.90302200	6.16809970	0.67992278
11.92121300	5.22305480	0.62043996
11.91695500	4.23070770	0.62364596
11.88636200	3.21148990	0.68028443
11.87629700	2.21632900	0.67411882
11.90068700	1.24784690	0.67885505
11.85954500	0.24544566	0.68071557
10.93868300	17.22932200	0.59137394
10.93251600	16.22634200	0.58834680
10.92860900	15.22492000	0.58562782
10.93828000	14.23762400	0.58297123
10.93163100	13.23320700	0.58364495
10.92904600	12.23415700	0.58105463
10.92880600	11.22560500	0.58151688
10.93185700	10.22682800	0.57846284
10.92294700	9.22899480	0.58036847
10.91423100	8.22707510	0.58192928
10.91376700	7.22228350	0.58175939
10.91249200	6.22089350	0.58413360
10.91022900	5.23749350	0.58454273
10.90021300	4.22104920	0.58684228
10.90365000	3.23368280	0.58519389
10.90446900	2.22551060	0.58634293
10.91627700	1.23099440	0.58554988
10.91395600	0.22695242	0.58574129
9.95617160	17.23533900	0.55132064
9.94629360	16.23586300	0.55081596
9.94690620	15.22955200	0.54693802
9.94642900	14.23096600	0.54648590
9.94940470	13.22976000	0.54539640
9.94556130	12.22992500	0.54417440
9.94712770	11.23262900	0.54539312
9.94730960	10.22995300	0.54536814
9.94254280	9.23378030	0.54725116
9.94422470	8.22836740	0.54381338
9.93594520	7.22980590	0.54517067
9.92972240	6.23706580	0.55109253
9.92840540	5.23005830	0.55147238
9.92682390	4.23384360	0.55359282
9.92314680	3.23424340	0.54737542
9.92965120	2.23024900	0.54899700
9.91984930	1.24377630	0.54910577
9.92149080	0.22828054	0.54986796
8.93829920	17.24585100	0.51548761
8.94481960	16.24129600	0.51555050
8.94155120	15.22654500	0.51225544
8.94732850	14.23355000	0.51225786
8.94568820	13.23559400	0.51156806
8.94775230	12.23068300	0.50983749
8.93679230	11.23417300	0.51111785
8.94029810	10.23258900	0.51168735
8.94438940	9.23669440	0.51110710
8.93504140	8.23772180	0.50861495
8.93749710	7.22955900	0.51047115
8.92280540	6.23030600	0.51258124
8.91833110	5.23135530	0.51446698
8.91713070	4.23148950	0.51773912
8.90672740	3.24820060	0.51535597
8.91308670	2.22860580	0.51941310
8.90983150	1.23250510	0.51832157
8.91511920	0.23080859	0.51846980
7.94507460	17.23036100	0.48209130
7.94707760	16.23477300	0.47942785
7.94854230	15.23423900	0.47720572
7.94647630	14.22701000	0.47552243
7.93909770	13.23409400	0.47469567
7.93997380	12.23364300	0.47365548
7.93316110	11.22822500	0.47450700
7.94089100	10.22956900	0.47511288
7.93353510	9.24039590	0.47479409
7.93596060	8.22306370	0.47615890
7.93944450	7.22883340	0.47461263
7.92528990	6.23577580	0.47930962
7.92051210	5.22391200	0.48068819
7.92349140	4.23287880	0.48550503
7.92626330	3.22888360	0.48025764
7.91230470	2.22514910	0.47963512
7.91677770	1.23024570	0.47692263
7.91686960	0.22042990	0.47739277
6.94142360	17.24333500	0.44736853
6.93995140	16.23877100	0.44723846
6.93892210	15.23306600	0.44505730
6.93695260	14.24559900	0.44195967
6.93823830	13.24020400	0.43711684
6.93305390	12.23428300	0.43619924
6.93586050	11.23507700	0.43955827
6.92950060	10.24336100	0.44008594
6.92910070	9.24265490	0.44020218
6.92941410	8.24311840	0.44514746
6.92531630	7.23067970	0.44410600
6.92904800	6.24189280	0.44741583
6.93041110	5.24119220	0.44747464
6.92377640	4.24654020	0.45011740
6.92628230	3.25219710	0.44828030
6.91742520	2.24247930	0.44874881
6.91536840	1.23880730	0.44100376
6.91642890	0.23334924	0.44872085
5.93998610	17.24918400	0.41543607
5.94096780	16.23791900	0.41253815
5.93991870	15.23139000	0.40914444
5.93735250	14.23993700	0.40837075
5.93744520	13.23835900	0.40343476
5.92915720	12.24053200	0.40308773
5.92708950	11.24214300	0.40016522
5.93825100	10.25049800	0.40609363
5.94170370	9.23480510	0.40727661
5.94029750	8.23627320	0.41071257
5.92948520	7.24681820	0.41238567
5.94554820	6.25073740	0.41467481
5.92507860	5.23507820	0.41053069
5.92805730	4.23959780	0.41442309
5.93069680	3.23749660	0.41572539
5.92235880	2.23388160	0.41333635
5.92052450	1.23312040	0.40838263
5.92215040	0.24349888	0.40831928
4.93609660	17.24266800	0.37876479
4.93777350	16.25111200	0.37546106
5.03775220	15.11651500	0.37357136
4.93021630	14.24782800	0.37288226
4.94481760	13.25789100	0.37257934
4.93805330	12.25457700	0.37394390
4.93925080	11.25024100	0.37334923
4.94270130	10.25712700	0.37331255
4.93247240	9.24616310	0.37304756
4.93986150	8.24972610	0.37767579
4.93307650	7.24826360	0.37967955
4.93830980	6.25034190	0.37844021
4.92886120	5.24391780	0.37956757
4.92322840	4.25934200	0.38228441
4.92410830	3.25467350	0.38404481
4.92058280	2.25365840	0.38297965
4.92966360	1.25590600	0.37956930
4.92181800	0.25200818	0.38162980
3.94987350	17.24944100	0.35102484
3.94449150	16.24968200	0.35094810
3.93996320	15.24649000	0.34921263
3.94097380	14.24492200	0.34640252
3.94903900	13.25068900	0.34434134
3.93934650	12.25525300	0.34328093
3.94403100	11.25067500	0.34477885
3.94079330	10.24461100	0.34380928
3.93635570	9.25204320	0.34424620
3.93875880	8.25274540	0.34831377
3.92738550	7.24776560	0.35042537
3.92499270	6.25239550	0.35007161
3.92495070	5.24685550	0.35008799
3.91190960	4.25279370	0.35198942
3.91653680	3.24772420	0.35682596
3.91392320	2.24984030	0.35335221
3.90936630	1.24247840	0.35015348
3.92436480	0.24707949	0.34976901
